ply
format ascii 1.0
element vertex 80
property float x
property float y
property float z
end_header
-0.15514995157718658 0.07567166537046432 -0.19043006002902985
-0.26706764101982117 0.10070290416479111 -0.09682757407426834
-0.458316832780838 0.19339269399642944 0.08388212323188782
-0.5626479387283325 0.3042828440666199 0.2241535782814026
-0.1620166003704071 0.07831664383411407 -0.23969125747680664
-0.23659196496009827 0.08695622533559799 -0.184324711561203
-0.4065384566783905 0.16122402250766754 -0.008359777741134167
-0.4473685622215271 0.2159356027841568 0.0866345688700676
-0.1575452834367752 0.08022798597812653 -0.23623991012573242
-0.18611958622932434 0.06556626409292221 -0.22612987458705902
-0.25298765301704407 0.07525600492954254 -0.14607305824756622
-0.30658382177352905 0.11919928342103958 -0.05716506019234657
-0.14587493240833282 0.09293505549430847 -0.21535734832286835
-0.1202036589384079 0.060046467930078506 -0.22147928178310394
-0.1475517451763153 0.04843827337026596 -0.19590024650096893
-0.20339052379131317 0.06954469531774521 -0.1488148421049118
0.19822010397911072 0.4279535710811615 0.23437483608722687
0.06531807780265808 0.37779349088668823 0.15578697621822357
-0.06784883886575699 0.30223044753074646 0.0012878731358796358
-0.20874401926994324 0.21943914890289307 -0.15458287298679352
0.266335129737854 0.3482271134853363 0.2214062362909317
0.12449251860380173 0.26400846242904663 0.12829849123954773
-0.022109942510724068 0.18464574217796326 -0.041604090481996536
-0.15622077882289886 0.07960885018110275 -0.2128991335630417
0.2597019076347351 0.20286113023757935 0.21985109150409698
0.14083033800125122 0.11032696813344955 0.10476252436637878
0.011755818501114845 0.021575216203927994 -0.1002369374036789
-0.08468383550643921 -0.07516641169786453 -0.24382899701595306
0.22318778932094574 0.08793846517801285 0.19888247549533844
0.11403681337833405 -0.013611664064228535 0.08761130273342133
0.0362892746925354 -0.10641223937273026 -0.11152589321136475
-0.006951123476028442 -0.1504577398300171 -0.23879142105579376
0.1294051706790924 0.293192982673645 -0.1997923105955124
0.1353059858083725 0.3486168086528778 -0.20072028040885925
0.2395581305027008 0.44608020782470703 -0.2108876258134842
0.3492685556411743 0.4971235990524292 -0.22188742458820343
0.13065053522586823 0.43334105610847473 -0.1778324842453003
0.13194739818572998 0.46939462423324585 -0.1991996318101883
0.17522473633289337 0.5011102557182312 -0.1940627098083496
0.26804739236831665 0.5290461182594299 -0.18838408589363098
0.12111450731754303 0.4983494281768799 -0.1836170256137848
0.11798634380102158 0.5275947451591492 -0.17806226015090942
0.11086554825305939 0.5365064144134521 -0.18401119112968445
0.18460653722286224 0.5504168272018433 -0.1952356994152069
0.11512096971273422 0.5319534540176392 -0.18709951639175415
0.12136983871459961 0.5570396184921265 -0.17883633077144623
0.10927311331033707 0.5669535994529724 -0.18374298512935638
0.15467490255832672 0.5643802285194397 -0.21455124020576477
0.07916970551013947 0.20884646475315094 -0.2185470461845398
0.12134800106287003 0.24374961853027344 -0.20166735351085663
0.15806365013122559 0.23206493258476257 -0.15810462832450867
0.2126581221818924 0.201888769865036 -0.08378934860229492
0.13579629361629486 0.18507897853851318 -0.223403200507164
0.18332143127918243 0.14985822141170502 -0.1704108864068985
0.24563758075237274 0.09367188811302185 -0.08166326582431793
0.31024378538131714 0.04064168408513069 0.022863909602165222
0.22320303320884705 0.14420843124389648 -0.19310696423053741
0.28508463501930237 0.027085531502962112 -0.07963474094867706
0.361707866191864 -0.07353293895721436 0.035776205360889435
0.45156019926071167 -0.11715773493051529 0.12925675511360168
0.293188214302063 0.08274375647306442 -0.12878549098968506
0.36885470151901245 -0.05790851265192032 0.014149429276585579
0.457981675863266 -0.19938816130161285 0.10579513013362885
0.5658225417137146 -0.22602058947086334 0.18000373244285583
-0.5770660042762756 -0.19406965374946594 -0.21273177862167358
-0.4412418007850647 -0.1768522560596466 -0.21577681601047516
-0.29853618144989014 -0.18184930086135864 -0.22805145382881165
-0.2189749926328659 -0.17729736864566803 -0.24337175488471985
-0.47934022545814514 -0.2383340299129486 -0.10778729617595673
-0.3540363907814026 -0.26005861163139343 -0.12557239830493927
-0.27137699723243713 -0.28893667459487915 -0.1312936246395111
-0.22167479991912842 -0.2813640236854553 -0.15281662344932556
-0.43615180253982544 -0.3410285711288452 -0.017495151609182358
-0.3786226212978363 -0.39545580744743347 -0.04353026673197746
-0.29712748527526855 -0.4167245924472809 -0.07739701122045517
-0.1977972388267517 -0.3986169099807739 -0.08236514776945114
-0.4294035732746124 -0.42949196696281433 0.021644296124577522
-0.3908618092536926 -0.4852888584136963 -0.013243906199932098
-0.3015263080596924 -0.5049669742584229 -0.043177273124456406
-0.17339013516902924 -0.48171916604042053 -0.020696530118584633
