ply
format ascii 1.0
element vertex 160
property float x
property float y
property float z
end_header
0.104289435 0.6878309 -0.40450215
0.09375448 0.6931215 -0.34652293
0.08626415 0.6964132 -0.2942335
0.092704035 0.69501424 -0.24114048
0.17342006 0.6825911 -0.39283848
0.15411441 0.6870316 -0.33532366
0.14599097 0.6914564 -0.27860186
0.15436985 0.6872781 -0.23487937
0.22756226 0.67329514 -0.38120747
0.22209215 0.6827881 -0.3230242
0.21435577 0.6781955 -0.27112323
0.20791608 0.6729263 -0.22335075
0.2656836 0.66457 -0.37376988
0.2560188 0.6628007 -0.32557037
0.25282958 0.65890694 -0.2674462
0.25260788 0.65757453 -0.22593759
-0.011214024 0.28890428 0.25071514
-0.014046587 0.23021778 0.26273227
-0.0063515943 0.15857427 0.26181427
-0.030435547 0.094411254 0.27033117
-0.019147417 0.29575744 0.32581925
-0.0054281047 0.24464625 0.34884375
-0.003834281 0.17816597 0.35273567
-0.010117804 0.12077472 0.3454613
-0.01862803 0.32436553 0.38129473
-0.0052732783 0.2700219 0.40530935
-0.0010044348 0.20390785 0.41364118
0.003592148 0.15706706 0.4093415
-0.004989024 0.33757865 0.42026672
0.0058309 0.29225218 0.44368547
0.018627731 0.23793846 0.45408475
0.028557297 0.20303114 0.46208715
-0.030825308 0.39695778 -0.15379208
-0.026293809 0.4266877 -0.1437264
-0.0070474097 0.4585941 -0.13439348
0.012883502 0.4915365 -0.109802365
-0.013681809 0.40197664 -0.15820122
-0.012685803 0.44996324 -0.15437551
-0.002336237 0.4906195 -0.15188234
0.021860022 0.5184889 -0.12083234
-0.002833612 0.4167013 -0.15361346
-0.0015352953 0.4688895 -0.14852668
0.012106833 0.50896037 -0.14264977
0.028753325 0.54358315 -0.12592313
0.008246719 0.43374202 -0.14728685
0.021303857 0.4726981 -0.1320932
0.026690416 0.5220175 -0.13193552
0.033038724 0.56589484 -0.123777606
0.028805789 -0.15485744 0.31182772
0.0064495616 -0.11508782 0.2604508
-0.020994611 -0.07922057 0.21767506
-0.03382108 -0.08257552 0.18474007
0.0049018506 -0.1892946 0.26599404
-0.016590336 -0.16619648 0.21688604
-0.037047137 -0.1397707 0.17174028
-0.040705066 -0.14092705 0.15596879
-0.027686106 -0.2384404 0.24191447
-0.04269016 -0.22809155 0.19876361
-0.040616408 -0.20666361 0.17488809
-0.04523679 -0.19796686 0.16945593
-0.03507891 -0.28046614 0.24989188
-0.037979018 -0.25726002 0.21731374
-0.036294457 -0.2396767 0.19176833
-0.039867107 -0.22820196 0.1859737
-0.15350765 0.38901722 -0.18453865
-0.12950246 0.40279055 -0.17335811
-0.09006295 0.41284442 -0.16688973
-0.06241713 0.43446818 -0.13565414
-0.17704539 0.40799233 -0.21471086
-0.13513047 0.41836193 -0.21091525
-0.0908447 0.4291372 -0.20290095
-0.06620094 0.44724137 -0.17089404
-0.19272242 0.4356985 -0.2472484
-0.14283977 0.43882814 -0.2471391
-0.09092787 0.4389868 -0.22882864
-0.065549366 0.4357463 -0.19677404
-0.21193878 0.46958473 -0.25344664
-0.17073578 0.45764288 -0.2461018
-0.10552637 0.4390872 -0.23198111
-0.059884988 0.43356147 -0.2152734
0.20559117 0.41292325 -0.19122913
0.16243775 0.43044782 -0.20534745
0.11923311 0.445768 -0.20593226
0.07749052 0.4483057 -0.1998342
0.21427011 0.42743436 -0.18090832
0.17185514 0.43489376 -0.19320466
0.13307166 0.44306624 -0.18758754
0.09185183 0.4441688 -0.17759442
0.21543281 0.43744373 -0.15250878
0.18717526 0.43968976 -0.15739885
0.14997403 0.43460825 -0.15680046
0.10815754 0.42934403 -0.14858623
0.206925 0.43220425 -0.12328587
0.17834151 0.43050694 -0.12551926
0.14981775 0.42222014 -0.12089511
0.11591096 0.4137684 -0.11093736
-0.1740182 0.5830415 -0.25627843
-0.1428487 0.60006094 -0.20665783
-0.08804379 0.62184983 -0.14174984
-0.043087024 0.63502586 -0.062028952
-0.18214457 0.5517681 -0.2358353
-0.14632648 0.5831455 -0.18710513
-0.083043054 0.61676496 -0.11598241
-0.032269612 0.6397653 -0.02961942
-0.16556107 0.53337616 -0.19624566
-0.13631757 0.56852794 -0.14988966
-0.086156264 0.60410863 -0.07478015
-0.034065574 0.63078934 0.020557718
-0.11813339 0.5017417 -0.12807626
-0.1157066 0.54664546 -0.09163292
-0.08568216 0.58247817 -0.025480695
-0.05407133 0.61371386 0.05975115
-0.018806444 -0.6545545 0.19190209
-0.017360099 -0.6386776 0.17328393
-0.020745363 -0.6127249 0.13162814
-0.04395988 -0.5884465 0.07685215
0.006517035 -0.61029345 0.18510845
0.010810342 -0.60556275 0.16053969
0.008438797 -0.58349365 0.1254299
-0.011506184 -0.5534356 0.07523772
0.04005501 -0.552495 0.15849145
0.035199124 -0.5547861 0.13001844
0.030107873 -0.53682077 0.09416015
0.01204121 -0.5125395 0.05830664
0.061630525 -0.49207312 0.1262061
0.059501894 -0.49067906 0.097635105
0.051830273 -0.4743663 0.06276575
0.025313664 -0.46355766 0.031700097
-0.021800866 -0.070310116 0.17537181
-0.0006706164 -0.11391774 0.18911052
-0.0007542771 -0.16629471 0.21704929
-0.00081353803 -0.21311812 0.22735023
-0.039032687 -0.06523162 0.190898
-0.013547107 -0.1272224 0.21481457
-0.00033266377 -0.19906019 0.22440667
-0.00010002684 -0.24978603 0.21845016
-0.035012446 -0.073593244 0.21915665
-0.009864601 -0.16018963 0.2352138
0.0053956406 -0.23949277 0.22635081
3.403239e-05 -0.28444588 0.21633078
-0.027362756 -0.08773383 0.23095009
0.0017757826 -0.18806449 0.2423335
0.010262433 -0.2683943 0.23172016
0.010255507 -0.30481976 0.21452352
-0.07377771 0.2872025 -0.036164563
-0.038812827 0.28717837 -0.0108235
-0.02363136 0.27008924 0.014798952
-0.0004977211 0.23378214 0.027261421
-0.037589677 0.31630626 -0.014000103
0.0059399204 0.31516406 0.006739423
0.03212848 0.29456815 0.008442349
0.06495102 0.25650722 0.010824993
0.0035709587 0.3370968 -0.021772906
0.055033516 0.33009675 -0.022672582
0.099184886 0.309775 -0.02479224
0.14340425 0.28098655 -0.010092242
0.06410961 0.34925783 -0.04784894
0.12521718 0.33486044 -0.042908464
0.17496464 0.3159226 -0.03999687
0.20487732 0.2907401 -0.035442162
