ply
format ascii 1.0
element vertex 160
property float x
property float y
property float z
end_header
0.079755366 0.12592515 -0.26284647
-0.02557538 0.15023363 -0.21271995
-0.1391086 0.1857404 -0.17497577
-0.23283845 0.19523723 -0.16833116
0.09211428 0.2099492 -0.28792864
-0.012617729 0.23567049 -0.2471827
-0.1155382 0.25421146 -0.22173224
-0.21505813 0.25349322 -0.22496642
0.07797988 0.2797911 -0.31585693
-0.009702426 0.31035876 -0.2921125
-0.09148464 0.31299987 -0.27986243
-0.19126882 0.29578325 -0.28676844
0.05756791 0.33303884 -0.3467545
-0.012923508 0.35564822 -0.33649588
-0.093682855 0.34016445 -0.3290907
-0.18392444 0.3075221 -0.33942586
0.08678278 -0.041853797 0.13528515
0.07647356 0.06966547 0.05331249
0.06725507 0.192789 -0.019838605
0.061612327 0.27993387 -0.06379268
0.14819546 0.021773852 0.1650665
0.14074185 0.15853788 0.083044976
0.13172366 0.2588335 0.027210841
0.13061765 0.3352884 -0.013112462
0.20390104 0.09188963 0.19500184
0.21197034 0.20746987 0.13807105
0.21239649 0.30285573 0.08735376
0.21371168 0.37063727 0.047001857
0.24971293 0.11360475 0.23116544
0.27241302 0.22119568 0.18698347
0.2897759 0.31107795 0.14389277
0.29655543 0.39223954 0.1040562
-0.13814937 0.4845991 -0.21925108
-0.16872855 0.47936654 -0.18575613
-0.20784415 0.4685364 -0.17732108
-0.25644556 0.46014667 -0.17278706
-0.10164739 0.5032954 -0.29480782
-0.14195946 0.4997826 -0.2624076
-0.19218151 0.4933257 -0.24232763
-0.25112045 0.48252723 -0.21321319
-0.070368595 0.53307253 -0.36806628
-0.12768571 0.5274397 -0.33756125
-0.1865124 0.51870525 -0.29743388
-0.24285711 0.50837225 -0.2531656
-0.03485059 0.5592651 -0.41975233
-0.10408165 0.5554958 -0.37354428
-0.16985331 0.53827465 -0.32950267
-0.22767206 0.531655 -0.29961455
0.24313384 0.40392315 -0.2655837
0.19175388 0.4601936 -0.1883619
0.13500406 0.497479 -0.10501328
0.09981032 0.5276998 -0.030367587
0.17310348 0.36177778 -0.21757632
0.10488311 0.42600495 -0.14409278
0.048480153 0.47418675 -0.06700578
0.015183809 0.5020244 -0.0017333535
0.07855448 0.31848562 -0.17144798
0.0074991817 0.3852029 -0.10612693
-0.036041956 0.44193858 -0.04101542
-0.066085875 0.47829783 0.018790215
0.006340661 0.28484547 -0.16261403
-0.05777559 0.34942943 -0.10276364
-0.11147295 0.4124942 -0.03990404
-0.15096603 0.45173475 0.02328553
-0.039468795 0.8234632 -0.1829995
-0.01842284 0.8190516 -0.09596551
0.012677449 0.803698 -0.002746197
0.046897855 0.78567845 0.07698084
-0.0038967568 0.78797686 -0.21416588
0.012087319 0.7835798 -0.117861375
0.037700903 0.7719648 -0.041074783
0.07197499 0.7533492 0.028949799
0.023381162 0.74897695 -0.23440969
0.037061766 0.7386538 -0.14850913
0.06745429 0.72661424 -0.08064637
0.10555199 0.71519303 -0.023432976
0.063870184 0.6970672 -0.25807038
0.07866721 0.6809675 -0.18462121
0.10747767 0.6713289 -0.12102566
0.15720634 0.6684882 -0.06905393
-0.06302426 -0.62225306 -0.0059455084
-0.061354313 -0.5912491 0.07629928
-0.05712188 -0.55859244 0.16489233
-0.043367404 -0.5330448 0.24129331
-0.04435179 -0.7158462 0.02555528
-0.037462857 -0.6907339 0.10876296
-0.037111256 -0.66039246 0.19738379
-0.030768782 -0.61717606 0.27435106
-0.009540197 -0.78076607 0.04931072
-0.003224168 -0.76064825 0.14618944
0.0018468255 -0.7350401 0.23606896
0.004245546 -0.69023633 0.30283734
0.0076453164 -0.82206774 0.07999111
0.021522721 -0.8057917 0.17745261
0.032046508 -0.7776583 0.26011324
0.050515793 -0.7414996 0.31999755
0.13988982 -0.05547718 -0.08557945
0.05185666 -0.026788656 -0.036138147
-0.026457954 -0.0017029999 0.0059068818
-0.0779956 0.038974456 0.051907405
0.16690516 -0.23265645 -0.07805533
0.056460537 -0.18007302 -0.03328266
-0.036836483 -0.14899428 0.010473665
-0.0972872 -0.09895899 0.0453551
0.17533965 -0.39997816 -0.051495373
0.07814204 -0.33481935 -0.0055622268
-0.029462354 -0.26368997 0.018350162
-0.10453285 -0.20483315 0.03807483
0.19354194 -0.46965766 0.0033657209
0.109069824 -0.41439262 0.031584594
0.010941106 -0.34174874 0.03448998
-0.08346613 -0.27620307 0.03555259
-0.17819759 -0.18172237 0.20031954
-0.12878412 -0.10600977 0.3145518
-0.066657245 -0.015146682 0.40713796
-0.033313397 0.029174566 0.4762092
-0.15583725 -0.14102843 0.11199476
-0.090571254 -0.053338617 0.20809543
-0.030151311 0.024474218 0.2990576
0.001073766 0.060890358 0.38884345
-0.1179053 -0.08382089 0.022391684
-0.04308176 0.007127045 0.10213395
0.014345407 0.07225431 0.19931431
0.039858397 0.109690584 0.28705254
-0.0717239 -0.011183388 -0.06230608
0.009404743 0.06424449 0.0021843205
0.05784248 0.13019982 0.09006607
0.07390446 0.16277404 0.1817048
-0.18984048 0.3348095 -0.18568747
-0.22824329 0.3202916 -0.13673182
-0.28241557 0.28886107 -0.05563492
-0.3407846 0.25410578 0.034166735
-0.11618235 0.35288554 -0.14910154
-0.16242696 0.33975446 -0.0972236
-0.21283661 0.31438774 -0.01447953
-0.26226687 0.2806544 0.07105054
-0.051966302 0.3524723 -0.100978896
-0.09789655 0.3469172 -0.051856812
-0.13964383 0.33696538 0.028417012
-0.17724687 0.31462294 0.10116933
0.006628183 0.35195866 -0.04911758
-0.019528251 0.3477813 -0.016090672
-0.06083174 0.35471222 0.053410053
-0.09913818 0.34767592 0.12358389
0.08112643 0.44426322 0.0700125
0.0630783 0.47623155 0.13594806
0.024291117 0.5027301 0.19987635
-0.021711854 0.5429298 0.2549857
0.02246842 0.5084069 0.02369327
-0.0055264733 0.55082715 0.080790676
-0.04653616 0.58535624 0.14465912
-0.08640996 0.6114849 0.20188496
-0.039204564 0.5643087 -0.007576114
-0.07433861 0.6135112 0.05050598
-0.108319096 0.64426506 0.09350899
-0.14041889 0.66674536 0.14657685
-0.10056672 0.6178113 -0.026627893
-0.12758778 0.65378934 0.019517986
-0.15719977 0.6819821 0.056327987
-0.18140124 0.70357203 0.102534026
