ply
format ascii 1.0
element vertex 80
property float x
property float y
property float z
end_header
-0.252450168132782 0.22468353807926178 -0.023559657856822014
-0.17529068887233734 0.24785654246807098 -0.11011476069688797
-0.051876988261938095 0.30188995599746704 -0.17535938322544098
0.015687206760048866 0.36519911885261536 -0.2231190800666809
-0.27713117003440857 0.24006973206996918 0.003781777573749423
-0.2113361656665802 0.2593223452568054 -0.08377451449632645
-0.1023121178150177 0.30511370301246643 -0.1411074846982956
-0.0311932060867548 0.36762556433677673 -0.18125779926776886
-0.2905001640319824 0.24142690002918243 0.0033276628237217665
-0.21858035027980804 0.25663313269615173 -0.07860223948955536
-0.1385987251996994 0.30382493138313293 -0.130682110786438
-0.09937362372875214 0.3484153151512146 -0.16995464265346527
-0.2864343523979187 0.2381744682788849 -0.009164940565824509
-0.23400937020778656 0.2468208372592926 -0.06754780560731888
-0.18561428785324097 0.2915281653404236 -0.14863057434558868
-0.16114863753318787 0.33697086572647095 -0.19030463695526123
-0.22468553483486176 -0.5910050868988037 0.22593896090984344
-0.27851274609565735 -0.5950703024864197 0.1874820590019226
-0.30844831466674805 -0.5720327496528625 0.1487569808959961
-0.3372083306312561 -0.5685813426971436 0.15127892792224884
-0.16937237977981567 -0.5652475953102112 0.10238002985715866
-0.2526210844516754 -0.5375874042510986 0.05713704600930214
-0.316626638174057 -0.5111970901489258 0.04639103636145592
-0.3691554665565491 -0.5085076093673706 0.08312688767910004
-0.10105213522911072 -0.5474704504013062 0.02825637347996235
-0.2005212903022766 -0.498644083738327 -0.016037743538618088
-0.28780123591423035 -0.45621851086616516 -0.02394651249051094
-0.3432057499885559 -0.4482009708881378 0.010202068835496902
-0.05033094435930252 -0.5123534202575684 -0.004537208471447229
-0.10998185724020004 -0.4680199921131134 -0.0548492968082428
-0.20073240995407104 -0.42977139353752136 -0.06433792412281036
-0.23782527446746826 -0.4024716913700104 -0.04596710950136185
0.4846614599227905 0.21945348381996155 0.1837039291858673
0.4888293743133545 0.1448061317205429 0.12294680625200272
0.5183115005493164 0.1078728660941124 0.10231484472751617
0.5223683714866638 0.12431837618350983 0.12867037951946259
0.45557278394699097 0.26159751415252686 0.16415822505950928
0.43432530760765076 0.16744457185268402 0.1269092559814453
0.4527125358581543 0.10156448185443878 0.12980636954307556
0.4697367250919342 0.09982199221849442 0.17051167786121368
0.4119887948036194 0.2297520786523819 0.16240769624710083
0.40040674805641174 0.1608821004629135 0.13041673600673676
0.4152739942073822 0.11956898868083954 0.1645287275314331
0.42891258001327515 0.08697905391454697 0.19972461462020874
0.3742176294326782 0.1758211851119995 0.14909546077251434
0.3768059015274048 0.15114006400108337 0.1377124935388565
0.3654385805130005 0.11597111821174622 0.1707601696252823
0.3791837990283966 0.06418707221746445 0.21964822709560394
0.2948973774909973 -0.020986143499612808 -0.20716144144535065
0.2453710436820984 -0.04885516315698624 -0.13902047276496887
0.1962520331144333 -0.05840752273797989 -0.1343972384929657
0.15250395238399506 -0.011924841441214085 -0.16043774783611298
0.3889327049255371 0.010848342441022396 -0.053460221737623215
0.32061004638671875 -0.010106576606631279 -0.020228635519742966
0.2350015789270401 0.01630481332540512 -0.024573957547545433
0.16310036182403564 0.05727970227599144 -0.03926859423518181
0.4520012140274048 0.046495355665683746 0.052975427359342575
0.3769594430923462 0.0387127548456192 0.03326386213302612
0.28689491748809814 0.07636746764183044 0.023087183013558388
0.17685484886169434 0.12775754928588867 0.011214754544198513
0.5003058314323425 0.11637056618928909 0.1176932156085968
0.4514203369617462 0.15812668204307556 0.06293003261089325
0.3656054735183716 0.20244455337524414 0.021867647767066956
0.26714640855789185 0.24119849503040314 0.02035287581384182
0.25824058055877686 0.09297259151935577 0.008880679495632648
0.23962195217609406 0.10754921287298203 0.016121957451105118
0.1972818374633789 0.15452580153942108 0.032210901379585266
0.14909984171390533 0.1692061722278595 0.030182713642716408
0.23822639882564545 -0.013379408977925777 0.034459635615348816
0.24620869755744934 0.011457039043307304 0.009074948728084564
0.2490071803331375 0.05890798196196556 0.014120474457740784
0.1840234398841858 0.07505375891923904 0.03877841308712959
0.20312745869159698 -0.13805924355983734 0.07793273031711578
0.2222282886505127 -0.1175902709364891 0.041301656514406204
0.24545396864414215 -0.1050327941775322 0.037156492471694946
0.2189786434173584 -0.08185985684394836 0.07746093720197678
0.1555062234401703 -0.2810085415840149 0.1306643933057785
0.1838635951280594 -0.25837334990501404 0.1125800684094429
0.20594654977321625 -0.2690914273262024 0.08957546949386597
0.2052764594554901 -0.2783295512199402 0.10712986439466476
