ply
format ascii 1.0
element vertex 80
property float x
property float y
property float z
end_header
0.08620896935462952 0.13796046376228333 -0.2347610890865326
0.09814765304327011 0.157437264919281 -0.22949527204036713
0.11737080663442612 0.18285320699214935 -0.2088598757982254
0.13049724698066711 0.19617021083831787 -0.19487328827381134
0.11445444077253342 0.20917296409606934 -0.2238001823425293
0.13926661014556885 0.2324330061674118 -0.2256556898355484
0.16377392411231995 0.24306637048721313 -0.20941804349422455
0.1595882773399353 0.24369831383228302 -0.19521403312683105
0.15555047988891602 0.2603379786014557 -0.2133118063211441
0.18803973495960236 0.29532742500305176 -0.21921171247959137
0.2149772197008133 0.32083436846733093 -0.2082153707742691
0.19920614361763 0.30318817496299744 -0.20596303045749664
0.17752207815647125 0.3082018196582794 -0.203963503241539
0.2276017665863037 0.3556393086910248 -0.20503254234790802
0.2649949789047241 0.39598026871681213 -0.2025097757577896
0.2500078082084656 0.37343040108680725 -0.2126733809709549
0.3193986713886261 0.17762166261672974 0.20126104354858398
0.3330710530281067 0.11751244217157364 0.1782694160938263
0.3688579201698303 0.04557444527745247 0.1705874651670456
0.4037916958332062 0.014155455864965916 0.16346465051174164
0.3390951156616211 0.0897202417254448 0.19866858422756195
0.36755770444869995 0.032018888741731644 0.17957335710525513
0.4003065824508667 -0.023197229951620102 0.15434904396533966
0.4183785021305084 -0.024228306487202644 0.15945956110954285
0.3721167743206024 0.004619268700480461 0.19797378778457642
0.4135698676109314 -0.07196733355522156 0.1835240125656128
0.4441967308521271 -0.09509064257144928 0.16414403915405273
0.44972217082977295 -0.07256913930177689 0.1618405431509018
0.4102439880371094 -0.054957590997219086 0.19569087028503418
0.46145394444465637 -0.1131792962551117 0.18482373654842377
0.4904584586620331 -0.14027978479862213 0.18180495500564575
0.4918588399887085 -0.11582402139902115 0.17668910324573517
-0.13200369477272034 0.056741997599601746 -0.2606390714645386
-0.1271364986896515 0.0636516734957695 -0.24806387722492218
-0.12362956255674362 0.05965607985854149 -0.22374320030212402
-0.10679613798856735 0.05704224854707718 -0.18406865000724792
-0.1343473196029663 0.0679226890206337 -0.21802878379821777
-0.1307702362537384 0.10229115933179855 -0.20744635164737701
-0.13121750950813293 0.12734167277812958 -0.18366503715515137
-0.11882560700178146 0.1364443004131317 -0.13737234473228455
-0.14907649159431458 0.07446939498186111 -0.18667632341384888
-0.14173665642738342 0.1409410834312439 -0.157346710562706
-0.14003126323223114 0.18924222886562347 -0.09697571396827698
-0.11260806769132614 0.20770202577114105 -0.05501949414610863
-0.16479329764842987 0.09706619381904602 -0.1549524962902069
-0.15537051856517792 0.17842699587345123 -0.10101708024740219
-0.1425706148147583 0.2278711497783661 -0.024197949096560478
-0.0966559574007988 0.2577906847000122 0.03548489883542061
-0.22533509135246277 0.08970654010772705 -0.1921945959329605
-0.17916321754455566 0.09982997924089432 -0.20179325342178345
-0.14466941356658936 0.09707973897457123 -0.20994336903095245
-0.10370630770921707 0.08004926890134811 -0.23426860570907593
-0.3053003251552582 0.08446844667196274 -0.12687435746192932
-0.2603515088558197 0.0924806073307991 -0.15179003775119781
-0.19292859733104706 0.08424283564090729 -0.18717795610427856
-0.14061318337917328 0.07028283923864365 -0.21856872737407684
-0.4016520380973816 0.0804198831319809 -0.06343802064657211
-0.3662673532962799 0.09331012517213821 -0.09981532394886017
-0.26776042580604553 0.08960391581058502 -0.15387974679470062
-0.17876189947128296 0.07553448528051376 -0.2103450745344162
-0.48096898198127747 0.08098775893449783 -0.026363244280219078
-0.419922411441803 0.08697964996099472 -0.07310555130243301
-0.32299935817718506 0.0815330296754837 -0.1388128101825714
-0.224187970161438 0.06295633316040039 -0.19059261679649353
-0.026618989184498787 -0.15764330327510834 -0.2443370223045349
-0.06330563127994537 -0.16063444316387177 -0.24403664469718933
-0.11311459541320801 -0.18886390328407288 -0.21657684445381165
-0.14360496401786804 -0.22225992381572723 -0.19317865371704102
-0.03543763980269432 -0.257876992225647 -0.18298423290252686
-0.09350904822349548 -0.2674086391925812 -0.16739335656166077
-0.14985811710357666 -0.2836094796657562 -0.1403069645166397
-0.181996688246727 -0.2941833734512329 -0.12113269418478012
-0.03729506954550743 -0.35286542773246765 -0.10348464548587799
-0.10767383128404617 -0.37416622042655945 -0.07385643571615219
-0.18102681636810303 -0.38518035411834717 -0.0565561018884182
-0.21245791018009186 -0.38228362798690796 -0.032804224640131
-0.02989283576607704 -0.414704293012619 -0.047595806419849396
-0.10359349101781845 -0.4307248592376709 -0.03369215875864029
-0.18905489146709442 -0.447934627532959 -0.009020517580211163
-0.2376103699207306 -0.4468476176261902 0.02799900434911251
